ply
format ascii 1.0
comment Created by Open3D
element vertex 1415
property double x
property double y
property double z
property uchar red
property uchar green
property uchar blue
end_header
0.121553 -0.030712 -0.958 54 40 38
0.119818 -0.035923 -0.958 63 50 48
0.117413 -0.045962 -0.958 154 142 165
0.121121 -0.048182 -0.958 131 143 130
0.126882 -0.047614 -0.958 75 68 55
0.132458 -0.047531 -0.958 56 42 38
0.139016 -0.045041 -0.958 54 38 37
0.119608 0.200796 -0.958 69 35 44
0.115496 0.204623 -0.958 66 48 41
0.111091 0.206207 -0.958 63 44 36
0.029736 0.193823 -0.958 67 55 52
0.022196 0.188453 -0.958 74 63 59
0.015768 0.183134 -0.958 70 59 53
0.010088 0.177852 -0.958 63 51 45
0.008502 0.172614 -0.958 55 43 39
0.002821 0.167378 -0.958 53 39 35
0.001745 0.162164 -0.958 51 37 34
-0.002912 0.156971 -0.958 53 38 36
-0.006315 0.147687 -0.958 78 69 68
-0.001494 0.138831 -0.958 64 61 55
0.002408 0.137194 -0.958 56 46 43
0.008116 0.137432 -0.958 52 38 36
0.013651 0.137108 -0.958 48 35 31
0.019372 0.137341 -0.958 42 31 27
0.024735 0.136457 -0.958 37 27 23
0.030101 0.135573 -0.958 35 24 21
0.036022 0.136357 -0.958 36 23 21
0.042321 0.138253 -0.958 37 24 22
0.04845 0.139588 -0.958 34 25 22
0.054588 0.14092 -0.958 28 20 17
0.060551 0.141694 -0.958 23 16 13
0.067661 0.145793 -0.958 21 18 11
0.071928 0.141567 -0.958 71 43 58
0.078491 0.143995 -0.958 138 129 141
0.122679 0.194144 -0.956 48 30 25
0.119571 0.198985 -0.956 44 38 27
0.117491 0.202261 -0.956 67 40 42
0.113141 0.204294 -0.956 65 38 38
0.108423 0.203636 -0.956 58 42 33
0.028641 0.191167 -0.956 66 60 51
0.02217 0.185823 -0.956 72 61 57
0.016254 0.180514 -0.956 68 55 51
0.011597 0.175243 -0.956 61 45 44
0.009499 0.17 -0.956 54 40 38
0.005353 0.164771 -0.956 52 36 34
0.003254 0.159555 -0.956 51 35 33
0.000869 0.153506 -0.956 52 42 37
-2.7e-05 0.141194 -0.956 64 47 53
0.005706 0.138709 -0.956 58 45 45
0.011241 0.138385 -0.956 52 37 36
0.016781 0.138061 -0.956 45 30 28
0.022145 0.137178 -0.956 39 26 24
0.027339 0.135751 -0.956 36 23 21
0.032882 0.135415 -0.956 35 23 20
0.038616 0.135637 -0.956 36 24 21
0.045105 0.138087 -0.956 36 25 22
0.05105 0.138864 -0.956 32 21 20
0.05738 0.14075 -0.956 27 15 14
0.063156 0.140969 -0.956 21 11 10
0.06913 0.141738 -0.956 27 46 19
0.07492 0.14195 -0.956 91 117 87
0.160074 0.041497 -0.956 81 99 82
0.157676 0.036022 -0.956 83 68 85
0.155278 0.030558 -0.956 43 18 34
0.151103 0.02521 -0.956 29 21 16
0.146928 0.019881 -0.956 37 27 21
0.142228 0.014606 -0.956 40 27 23
0.139367 0.009233 -0.956 40 26 23
0.135372 0.003952 -0.956 38 24 22
0.133074 -0.001432 -0.956 36 24 21
0.13134 -0.006846 -0.956 39 26 22
0.129606 -0.012253 -0.956 41 27 23
0.127872 -0.017652 -0.956 43 28 24
0.126704 -0.023088 -0.956 46 31 25
0.125535 -0.028362 -0.956 48 33 30
0.125446 -0.033736 -0.956 52 54 38
0.126543 -0.039199 -0.956 68 65 61
0.129335 -0.044116 -0.956 93 63 75
0.131311 -0.043473 -0.956 70 50 52
0.136899 -0.043394 -0.956 56 38 36
0.222673 0.052581 -0.954 91 62 86
0.218466 0.058958 -0.954 60 35 41
0.213585 0.059708 -0.954 46 26 24
0.167212 0.042042 -0.954 64 64 68
0.161231 0.038648 -0.954 56 74 62
0.15766 0.033224 -0.954 26 34 15
0.153487 0.027865 -0.954 27 14 13
0.148128 0.022597 -0.954 36 23 22
0.145726 0.017169 -0.954 39 27 25
0.14108 0.0119 -0.954 38 27 24
0.137651 0.006571 -0.954 36 24 21
0.134223 0.001259 -0.954 35 23 20
0.133056 -0.004201 -0.954 37 24 21
0.131322 -0.009614 -0.954 41 26 22
0.130155 -0.015063 -0.954 44 28 24
0.128987 -0.020506 -0.954 46 31 26
0.127253 -0.025818 -0.954 49 33 31
0.12451 -0.032744 -0.954 113 92 109
0.126172 -0.037306 -0.954 116 119 114
0.131883 -0.039907 -0.954 82 87 67
0.136366 -0.037803 -0.954 57 50 40
0.141387 -0.039174 -0.954 54 39 36
0.149037 -0.034081 -0.954 54 39 38
0.156717 -0.028997 -0.954 57 41 42
0.11937 0.199 -0.954 62 28 38
0.115255 0.202829 -0.954 61 43 36
0.110782 0.203965 -0.954 58 40 32
0.106061 0.203308 -0.954 60 40 34
0.028081 0.188521 -0.954 71 60 57
0.022145 0.18319 -0.954 67 56 52
0.016228 0.17789 -0.954 59 48 42
0.014642 0.172635 -0.954 53 41 36
0.009985 0.167385 -0.954 49 37 34
0.008909 0.162155 -0.954 49 34 30
0.005182 0.156869 -0.954 48 33 30
0.00372 0.147957 -0.954 58 46 45
0.008864 0.141601 -0.954 55 51 44
0.014729 0.140456 -0.954 47 37 32
0.019915 0.139015 -0.954 39 29 25
0.025099 0.137571 -0.954 35 24 20
0.030285 0.13613 -0.954 34 23 18
0.036022 0.136357 -0.954 35 24 19
0.042321 0.138253 -0.954 36 24 22
0.048263 0.139031 -0.954 34 24 22
0.054588 0.14092 -0.954 29 22 18
0.060551 0.141694 -0.954 24 17 14
0.066331 0.141908 -0.954 20 14 11
0.073074 0.144895 -0.954 42 17 26
0.12121 0.194276 -0.952 43 27 26
0.118998 0.199331 -0.952 44 36 28
0.117431 0.201813 -0.952 62 37 40
0.112958 0.202949 -0.952 62 38 35
0.16595 0.039048 -0.952 45 33 33
0.161217 0.035852 -0.952 43 25 31
0.152911 0.030692 -0.952 30 13 16
0.149327 0.025314 -0.952 26 18 13
0.146335 0.019918 -0.952 35 25 22
0.142228 0.014606 -0.952 39 26 24
0.139931 0.009196 -0.952 38 25 21
0.135937 0.003914 -0.952 36 22 20
0.133638 -0.001472 -0.952 35 21 18
0.132471 -0.00693 -0.952 36 24 19
0.132436 -0.012468 -0.952 41 26 23
0.131835 -0.017962 -0.952 44 29 25
0.131799 -0.023499 -0.952 46 35 30
0.131145 -0.028862 -0.952 46 40 32
0.129705 -0.036276 -0.952 129 99 113
0.133856 -0.037118 -0.952 74 50 58
0.139879 -0.036001 -0.952 54 38 35
0.146117 -0.034389 -0.952 50 37 34
0.151962 -0.033775 -0.952 51 40 36
0.159448 -0.029191 -0.952 56 47 42
0.02859 0.185888 -0.952 69 57 56
0.022654 0.180563 -0.952 63 51 48
0.017787 0.175273 -0.952 56 41 41
0.015639 0.170016 -0.952 51 38 33
0.012517 0.164769 -0.952 48 33 33
0.011442 0.159533 -0.952 46 32 27
0.008966 0.152596 -0.952 45 34 30
0.014908 0.145149 -0.952 50 37 37
0.018386 0.142456 -0.952 43 30 29
0.022751 0.138852 -0.952 36 24 22
0.027692 0.13685 -0.952 33 22 19
0.033244 0.136522 -0.952 34 24 20
0.03917 0.137306 -0.952 36 26 21
0.045105 0.138087 -0.952 36 25 22
0.05105 0.138864 -0.952 33 21 20
0.057192 0.140195 -0.952 29 18 18
0.063156 0.140969 -0.952 25 15 15
0.06932 0.142293 -0.952 23 18 12
0.077795 0.150268 -0.952 33 25 16
0.11937 0.199 -0.95 54 22 31
0.115134 0.201932 -0.95 59 38 33
0.110475 0.201724 -0.95 58 38 31
0.06094 0.204982 -0.95 49 36 31
0.053858 0.199504 -0.95 50 31 31
0.048994 0.194093 -0.95 56 38 39
0.02803 0.183243 -0.95 62 52 48
0.024233 0.177941 -0.95 54 44 39
0.020437 0.172657 -0.95 49 37 34
0.016125 0.167392 -0.95 46 35 29
0.015562 0.162145 -0.95 43 32 27
0.015477 0.156887 -0.95 42 29 28
0.018144 0.147727 -0.95 45 38 33
0.025585 0.138151 -0.95 34 24 20
0.030842 0.137814 -0.95 33 21 19
0.036391 0.137472 -0.95 36 23 21
0.042321 0.138253 -0.95 36 25 23
0.048263 0.139031 -0.95 33 25 21
0.054026 0.139252 -0.95 33 23 20
0.060173 0.140582 -0.95 30 21 17
0.066141 0.141352 -0.95 27 19 16
0.073265 0.14545 -0.95 24 18 16
0.080412 0.149539 -0.95 28 19 21
0.176058 0.043492 -0.95 33 21 22
0.168931 0.038227 -0.95 27 17 16
0.154702 0.033387 -0.95 24 14 9
0.151712 0.027967 -0.95 29 14 12
0.14872 0.022561 -0.95 37 21 20
0.145726 0.017169 -0.95 39 25 23
0.14108 0.0119 -0.95 38 24 21
0.139349 0.006456 -0.95 35 22 19
0.135354 0.00118 -0.95 33 20 18
0.133601 -0.004242 -0.95 35 22 19
0.133555 -0.009783 -0.95 40 26 21
0.132959 -0.015281 -0.95 46 29 26
0.132898 -0.020816 -0.95 52 36 34
0.130851 -0.028095 -0.95 89 81 80
0.131345 -0.031069 -0.95 76 74 70
0.132339 -0.033942 -0.95 90 93 76
0.138565 -0.032327 -0.95 55 48 38
0.143801 -0.033205 -0.95 49 36 32
0.150655 -0.030104 -0.95 48 36 33
0.085065 0.203071 -0.948 57 37 33
0.08062 0.205122 -0.948 47 28 25
0.075902 0.205386 -0.948 39 47 18
0.071321 0.206545 -0.948 81 76 56
0.068697 0.207824 -0.948 57 47 44
0.056557 0.202223 -0.948 49 34 30
0.050089 0.196775 -0.948 47 32 27
0.0479 0.191413 -0.948 52 41 35
0.035545 0.185958 -0.948 58 49 44
0.028539 0.180608 -0.948 59 47 46
0.023138 0.1753 -0.948 51 38 35
0.020946 0.170028 -0.948 46 33 31
0.019825 0.164769 -0.948 43 31 28
0.019523 0.159426 -0.948 41 28 25
0.019181 0.152399 -0.948 45 33 31
0.021641 0.146518 -0.948 42 30 30
0.023775 0.14101 -0.948 37 26 24
0.028239 0.138524 -0.948 33 22 19
0.033979 0.13875 -0.948 34 23 20
0.039724 0.138977 -0.948 36 25 22
0.045478 0.1392 -0.948 36 24 21
0.051425 0.139977 -0.948 35 24 21
0.057756 0.141863 -0.948 33 23 21
0.063345 0.141523 -0.948 30 20 18
0.06951 0.142846 -0.948 30 22 23
0.075878 0.144723 -0.948 34 34 39
0.081489 0.144377 -0.948 40 37 44
0.168355 0.041069 -0.948 31 17 15
0.156493 0.036086 -0.948 26 14 12
0.152911 0.030692 -0.948 25 16 12
0.149327 0.025314 -0.948 30 20 15
0.146928 0.019881 -0.948 36 23 19
0.144526 0.01446 -0.948 38 23 21
0.140498 0.009158 -0.948 37 22 20
0.138201 0.003758 -0.948 35 20 19
0.135336 -0.001593 -0.948 33 19 17
0.133603 -0.007013 -0.948 34 22 19
0.132738 -0.012655 -0.948 48 36 30
0.132014 -0.018394 -0.948 71 67 56
0.13348 -0.025141 -0.948 85 71 69
0.138304 -0.029966 -0.948 65 46 49
0.142486 -0.029531 -0.948 50 36 34
0.148335 -0.028919 -0.948 49 34 32
0.1548 -0.026817 -0.948 50 38 33
0.161489 -0.024223 -0.948 54 45 40
0.091845 0.201352 -0.946 67 49 41
0.087222 0.201599 -0.946 62 44 37
0.082842 0.204097 -0.946 53 37 29
0.078399 0.206147 -0.946 63 33 44
0.07389 0.207751 -0.946 136 87 133
0.0691 0.20757 -0.946 155 163 144
0.063589 0.202933 -0.946 105 130 80
0.06094 0.204982 -0.946 56 51 42
0.054928 0.199522 -0.946 53 34 34
0.047924 0.194077 -0.946 50 35 31
0.04306 0.188693 -0.946 54 40 38
0.036055 0.183315 -0.946 53 46 39
0.029049 0.177972 -0.946 50 42 34
0.025253 0.172675 -0.946 45 34 31
0.023061 0.167401 -0.946 41 31 26
0.022475 0.162136 -0.946 38 27 24
0.023457 0.156857 -0.946 34 24 21
0.026032 0.151562 -0.946 32 21 18
0.025232 0.140246 -0.946 36 28 23
0.031017 0.138358 -0.946 31 22 18
0.036943 0.139141 -0.946 35 22 20
0.042508 0.138809 -0.946 36 24 21
0.048263 0.139031 -0.946 35 24 21
0.054213 0.139809 -0.946 36 25 22
0.060362 0.141138 -0.946 35 24 21
0.066141 0.141352 -0.946 32 29 19
0.071164 0.139348 -0.946 53 40 55
0.076761 0.139006 -0.946 74 65 82
0.083716 0.142541 -0.946 62 59 62
0.16837 0.04388 -0.946 37 26 20
0.16065 0.038665 -0.946 28 17 13
0.154111 0.03342 -0.946 26 12 10
0.151712 0.027967 -0.946 32 19 15
0.148128 0.022597 -0.946 38 24 19
0.146319 0.017132 -0.946 40 24 20
0.141646 0.011863 -0.946 37 23 20
0.139914 0.006418 -0.946 34 22 18
0.137616 0.001021 -0.946 31 19 16
0.134752 -0.004324 -0.946 33 19 17
0.134672 -0.009882 -0.946 39 25 22
0.133865 -0.01614 -0.946 64 49 45
0.135595 -0.023628 -0.946 73 67 56
0.141171 -0.025847 -0.946 51 41 35
0.146213 -0.027232 -0.946 46 33 30
0.152679 -0.025133 -0.946 48 35 31
0.158956 -0.023532 -0.946 51 39 36
0.094024 0.200334 -0.944 68 49 41
0.0896 0.201923 -0.944 66 46 40
0.085065 0.203071 -0.944 61 39 35
0.080551 0.204675 -0.944 53 38 27
0.076317 0.208064 -0.944 91 137 78
0.071531 0.207882 -0.944 211 160 224
0.066685 0.206679 -0.944 134 102 128
0.060363 0.202291 -0.944 57 42 40
0.053833 0.196831 -0.944 48 33 27
0.0479 0.191413 -0.944 48 35 29
0.0425 0.186029 -0.944 49 40 33
0.035495 0.180662 -0.944 51 42 38
0.030094 0.175336 -0.944 47 37 35
0.027903 0.170046 -0.944 43 31 27
0.026247 0.164769 -0.944 39 26 24
0.025252 0.159403 -0.944 35 23 20
0.024943 0.152543 -0.944 37 27 23
0.026772 0.145947 -0.944 34 23 21
0.029228 0.140983 -0.944 32 21 19
0.03453 0.140421 -0.944 31 22 18
0.040093 0.140089 -0.944 35 25 20
0.045663 0.139755 -0.944 37 26 22
0.051425 0.139977 -0.944 38 27 23
0.057756 0.141863 -0.944 37 26 23
0.063535 0.142078 -0.944 33 22 20
0.06913 0.141738 -0.944 42 61 35
0.073578 0.138067 -0.944 101 131 115
0.079175 0.137725 -0.944 107 119 125
0.160074 0.041497 -0.944 53 37 30
0.155902 0.036118 -0.944 40 20 18
0.153503 0.030659 -0.944 29 16 12
0.152286 0.025141 -0.944 34 23 16
0.147519 0.019845 -0.944 40 26 20
0.145709 0.014385 -0.944 40 26 20
0.141628 0.009083 -0.944 38 22 19
0.139898 0.003641 -0.944 35 19 17
0.137455 -0.001806 -0.944 34 18 15
0.135298 -0.007704 -0.944 43 28 23
0.135507 -0.013413 -0.944 56 40 37
0.136978 -0.017416 -0.944 61 43 41
0.140424 -0.02124 -0.944 48 36 33
0.144914 -0.023534 -0.944 45 32 29
0.150956 -0.022453 -0.944 46 34 31
0.156424 -0.022841 -0.944 49 36 33
0.163733 -0.01876 -0.944 53 43 39
0.21296 0.007884 -0.942 46 42 47
0.213825 0.012625 -0.942 34 19 19
0.214247 0.017362 -0.942 38 23 19
0.119013 0.196308 -0.942 39 11 24
0.114529 0.197446 -0.942 51 32 28
0.109798 0.196792 -0.942 57 35 30
0.091713 0.200457 -0.942 65 48 40
0.087289 0.202046 -0.942 64 44 38
0.082842 0.204097 -0.942 56 39 31
0.078468 0.206593 -0.942 84 56 71
0.073831 0.207877 -0.942 182 162 190
0.069018 0.207746 -0.942 173 182 173
0.062827 0.205345 -0.942 64 64 53
0.055463 0.199531 -0.942 55 37 39
0.049529 0.194101 -0.942 49 35 30
0.04413 0.188705 -0.942 48 36 32
0.041405 0.183363 -0.942 49 37 34
0.03547 0.178012 -0.942 47 37 32
0.030069 0.172694 -0.942 43 32 28
0.028413 0.167409 -0.942 38 27 24
0.028362 0.162128 -0.942 34 23 20
0.028808 0.156839 -0.942 32 20 16
0.028753 0.151137 -0.942 30 19 16
0.032732 0.140106 -0.942 32 21 18
0.037312 0.140255 -0.942 35 21 19
0.042878 0.139921 -0.942 37 25 22
0.048636 0.140145 -0.942 38 27 22
0.054964 0.142032 -0.942 40 28 25
0.060551 0.141694 -0.942 37 28 24
0.066711 0.143017 -0.942 34 31 21
0.071164 0.139348 -0.942 82 55 73
0.075992 0.136789 -0.942 153 149 169
0.081781 0.137 -0.942 128 153 140
0.161895 0.049816 -0.942 62 50 42
0.155359 0.044538 -0.942 85 84 69
0.154143 0.039009 -0.942 68 67 52
0.154111 0.03342 -0.942 33 25 18
0.152894 0.027899 -0.942 35 21 19
0.14872 0.022561 -0.942 42 26 23
0.146319 0.017132 -0.942 42 27 23
0.142777 0.011789 -0.942 39 25 20
0.14048 0.00638 -0.942 35 21 17
0.138748 0.000942 -0.942 30 17 15
0.137712 -0.004781 -0.942 34 21 18
0.137097 -0.011567 -0.942 49 34 30
0.143904 -0.019419 -0.942 42 30 27
0.148633 -0.021256 -0.942 44 30 28
0.154701 -0.020161 -0.942 47 34 32
0.163431 -0.012602 -0.942 50 40 38
0.212971 0.005514 -0.94 92 109 109
0.214719 0.010256 -0.94 85 83 100
0.214699 0.014992 -0.94 45 25 34
0.212024 0.019739 -0.94 37 24 17
0.116651 0.19598 -0.94 35 31 22
0.112348 0.198464 -0.94 50 35 27
0.107553 0.197361 -0.94 56 41 31
0.10294 0.197607 -0.94 61 42 35
0.089335 0.200133 -0.94 64 44 38
0.084931 0.202178 -0.94 62 39 35
0.080551 0.204675 -0.94 59 42 35
0.076178 0.207172 -0.94 115 155 110
0.07146 0.207436 -0.94 235 177 252
0.066058 0.205931 -0.94 75 66 69
0.060915 0.202302 -0.94 62 48 50
0.054368 0.19684 -0.94 52 37 31
0.048435 0.19142 -0.94 51 37 33
0.044105 0.186046 -0.94 49 36 33
0.04138 0.180707 -0.94 48 36 32
0.03491 0.175361 -0.94 45 34 30
0.032719 0.17006 -0.94 41 28 26
0.030528 0.164769 -0.94 36 24 21
0.029942 0.159484 -0.94 33 21 18
0.027885 0.153952 -0.94 30 19 17
0.030447 0.145313 -0.94 29 18 16
0.03453 0.140421 -0.94 31 21 18
0.039909 0.139533 -0.94 35 24 20
0.045663 0.139755 -0.94 37 25 22
0.051798 0.141088 -0.94 40 29 24
0.057756 0.141863 -0.94 41 29 26
0.063345 0.141523 -0.94 36 23 22
0.06913 0.141738 -0.94 46 63 33
0.073578 0.138067 -0.94 138 172 142
0.07879 0.136618 -0.94 173 170 178
0.155967 0.047305 -0.94 91 94 73
0.152976 0.041864 -0.94 126 131 110
0.152944 0.036278 -0.94 77 62 61
0.154094 0.030625 -0.94 42 20 25
0.151695 0.025175 -0.94 37 24 19
0.148702 0.019773 -0.94 42 28 23
0.146302 0.014347 -0.94 41 26 22
0.142759 0.009008 -0.94 38 23 19
0.140462 0.003602 -0.94 34 20 16
0.139267 -0.001879 -0.94 29 17 15
0.13871 -0.009149 -0.94 40 25 22
0.144138 -0.014673 -0.94 35 27 23
0.147422 -0.017652 -0.94 36 26 24
0.152532 -0.018524 -0.94 40 30 27
0.158656 -0.017375 -0.94 46 36 33
0.16618 -0.0128 -0.94 49 40 38
0.21121 0.003136 -0.938 108 98 113
0.214729 0.007888 -0.938 128 154 143
0.215151 0.012624 -0.938 66 81 61
0.213804 0.017363 -0.938 38 23 18
0.211128 0.022115 -0.938 39 24 19
0.1679 0.040267 -0.938 39 26 19
0.1632 0.042506 -0.938 75 58 63
0.157012 0.047355 -0.938 114 99 107
0.154175 0.044606 -0.938 140 136 139
0.152961 0.039071 -0.938 102 120 95
0.154111 0.03342 -0.938 39 36 20
0.152894 0.027899 -0.938 38 21 20
0.149904 0.02249 -0.938 43 26 22
0.147502 0.017058 -0.938 41 27 21
0.145101 0.011638 -0.938 38 25 19
0.141611 0.006303 -0.938 33 22 17
0.140411 0.000803 -0.938 28 18 14
0.139819 -0.004734 -0.938 28 16 15
0.144087 -0.012908 -0.938 38 25 22
0.145974 -0.013892 -0.938 38 25 22
0.150839 -0.015789 -0.938 42 28 26
0.156723 -0.01519 -0.938 47 32 30
0.163431 -0.012602 -0.938 46 36 33
0.171389 -0.007032 -0.938 49 38 37
0.177336 -0.006404 -0.938 49 37 36
0.184346 -0.003251 -0.938 51 36 34
0.087089 0.200705 -0.938 62 40 35
0.082706 0.203202 -0.938 59 37 32
0.07833 0.2057 -0.938 76 57 61
0.073504 0.207685 -0.938 141 134 153
0.069359 0.206162 -0.938 66 65 54
0.059786 0.199603 -0.938 57 40 38
0.053274 0.194152 -0.938 52 38 33
0.047875 0.188748 -0.938 50 36 33
0.04301 0.183376 -0.938 48 36 32
0.040285 0.178044 -0.938 44 35 29
0.03542 0.172715 -0.938 40 30 25
0.033229 0.167415 -0.938 35 24 21
0.032643 0.162124 -0.938 33 22 19
0.031523 0.156836 -0.938 31 21 17
0.029343 0.150148 -0.938 29 18 17
0.035425 0.141549 -0.938 31 21 18
0.037681 0.141369 -0.938 32 20 18
0.043249 0.141035 -0.938 37 23 21
0.049382 0.142369 -0.938 38 26 23
0.055151 0.142587 -0.938 40 28 24
0.060928 0.142804 -0.938 37 27 22
0.066711 0.143017 -0.938 33 30 20
0.071546 0.140457 -0.938 83 50 64
0.076376 0.137896 -0.938 175 151 174
0.084102 0.14365 -0.938 141 183 146
0.212086 0.005511 -0.936 121 142 131
0.214719 0.010256 -0.936 136 133 149
0.214699 0.014992 -0.936 79 53 67
0.212024 0.019739 -0.936 43 22 18
0.210234 0.024493 -0.936 38 24 17
0.165548 0.041387 -0.936 43 66 26
0.160956 0.044634 -0.936 117 126 108
0.156212 0.046366 -0.936 174 180 168
0.154783 0.047363 -0.936 92 113 88
0.152976 0.041864 -0.936 143 146 149
0.153535 0.036246 -0.936 101 69 91
0.154094 0.030625 -0.936 47 21 27
0.151695 0.025175 -0.936 37 24 19
0.148702 0.019773 -0.936 41 27 22
0.146893 0.014309 -0.936 40 25 21
0.143326 0.00897 -0.936 37 22 20
0.141029 0.003563 -0.936 33 20 17
0.140385 -0.001992 -0.936 28 16 14
0.141881 -0.007812 -0.936 25 17 13
0.15353 -0.014384 -0.936 41 29 25
0.160481 -0.012902 -0.936 42 32 28
0.166588 -0.011807 -0.936 43 35 32
0.089071 0.198346 -0.936 59 40 34
0.084864 0.20173 -0.936 58 37 32
0.080483 0.204229 -0.936 57 35 31
0.075902 0.205386 -0.936 94 73 85
0.071321 0.206545 -0.936 146 107 165
0.069801 0.207846 -0.936 66 55 55
0.06202 0.202322 -0.936 59 43 42
0.055973 0.196865 -0.936 54 38 35
0.05004 0.19144 -0.936 52 37 34
0.04678 0.186074 -0.936 49 36 32
0.04138 0.180707 -0.936 47 35 32
0.03812 0.175378 -0.936 44 32 30
0.035395 0.170065 -0.936 39 26 24
0.034274 0.164769 -0.936 34 23 20
0.033153 0.159476 -0.936 33 22 19
0.033103 0.154184 -0.936 32 20 17
0.03151 0.147144 -0.936 32 19 17
0.0297 0.142981 -0.936 32 22 20
0.034713 0.140978 -0.936 30 21 18
0.040463 0.141203 -0.936 34 23 19
0.046221 0.141423 -0.936 37 24 22
0.05236 0.142757 -0.936 39 27 23
0.057944 0.142417 -0.936 38 25 23
0.063535 0.142078 -0.936 34 21 20
0.06932 0.142293 -0.936 40 57 27
0.074344 0.140286 -0.936 122 162 121
0.081103 0.143268 -0.936 154 137 138
0.210768 0.003134 -0.934 115 99 113
0.213403 0.007885 -0.934 141 162 152
0.214709 0.012624 -0.934 83 95 74
0.212918 0.017365 -0.934 40 27 17
0.211128 0.022115 -0.934 38 21 16
0.1679 0.040267 -0.934 44 31 25
0.163353 0.044021 -0.934 102 89 88
0.158663 0.046256 -0.934 203 184 194
0.153653 0.045464 -0.934 172 190 162
0.153552 0.03904 -0.934 88 116 88
0.154702 0.033387 -0.934 40 33 20
0.153487 0.027865 -0.934 40 22 19
0.151678 0.022384 -0.934 42 25 22
0.148686 0.016985 -0.934 40 25 21
0.146286 0.011562 -0.934 36 23 19
0.142742 0.006228 -0.934 33 21 17
0.141519 0.000711 -0.934 28 18 14
0.139503 -0.005542 -0.934 41 29 23
0.14843 -0.011133 -0.934 36 24 23
0.152446 -0.011813 -0.934 41 28 25
0.158139 -0.01171 -0.934 42 31 27
0.163838 -0.011608 -0.934 42 31 30
0.171389 -0.007032 -0.934 46 35 35
0.178596 -0.003369 -0.934 49 36 35
0.186247 0.001296 -0.934 52 39 38
0.091188 0.19688 -0.934 57 41 32
0.086822 0.198916 -0.934 57 39 31
0.082639 0.202756 -0.934 55 35 28
0.078193 0.204808 -0.934 55 38 29
0.068121 0.205122 -0.934 55 47 36
0.060339 0.199612 -0.934 55 40 34
0.054344 0.194167 -0.934 53 40 35
0.048945 0.18876 -0.934 51 38 34
0.046221 0.183405 -0.934 48 37 33
0.041891 0.178054 -0.934 44 34 30
0.0397 0.172731 -0.934 39 29 25
0.035905 0.167418 -0.934 35 24 21
0.034784 0.16212 -0.934 35 23 19
0.034734 0.156825 -0.934 33 21 18
0.031558 0.148907 -0.934 29 19 17
0.034487 0.144495 -0.934 37 22 20
0.037865 0.141925 -0.934 31 22 19
0.043619 0.142147 -0.934 35 23 20
0.049755 0.143481 -0.934 36 25 22
0.055339 0.143142 -0.934 37 26 23
0.060928 0.142804 -0.934 35 26 22
0.066711 0.143017 -0.934 33 25 21
0.072118 0.14212 -0.934 62 30 43
0.08022 0.148984 -0.934 127 86 100
0.211642 0.00551 -0.932 109 127 113
0.213835 0.010255 -0.932 128 123 135
0.213814 0.014994 -0.932 78 49 62
0.212024 0.019739 -0.932 40 20 15
0.209791 0.024496 -0.932 35 19 14
0.165599 0.041892 -0.932 49 101 31
0.160956 0.044634 -0.932 151 171 142
0.155946 0.043841 -0.932 219 217 217
0.155933 0.041711 -0.932 103 97 108
0.15531 0.03615 -0.932 82 58 73
0.154094 0.030625 -0.932 46 23 24
0.152879 0.025106 -0.932 39 24 20
0.149295 0.019737 -0.932 40 25 20
0.146893 0.014309 -0.932 39 23 19
0.144493 0.008893 -0.932 36 22 17
0.142725 0.003446 -0.932 34 20 16
0.140963 -0.002022 -0.932 29 18 14
0.146777 -0.009515 -0.932 34 23 21
0.150305 -0.010123 -0.932 37 26 24
0.155797 -0.010518 -0.932 41 28 26
0.16109 -0.011411 -0.932 42 30 27
0.167608 -0.009324 -0.932 44 34 31
0.093438 0.196309 -0.932 55 38 33
0.089004 0.197899 -0.932 56 35 31
0.084729 0.200836 -0.932 54 33 28
0.080348 0.203336 -0.932 54 32 27
0.066439 0.202401 -0.932 56 41 36
0.059762 0.196923 -0.932 55 41 35
0.053249 0.191482 -0.932 54 40 35
0.04785 0.186084 -0.932 52 39 36
0.043521 0.180722 -0.932 48 36 34
0.041331 0.175393 -0.932 43 30 28
0.03807 0.170073 -0.932 38 26 23
0.03588 0.164769 -0.932 35 24 20
0.035829 0.15947 -0.932 34 22 18
0.035779 0.154171 -0.932 30 19 16
0.035577 0.146238 -0.932 34 22 19
0.030612 0.145766 -0.932 33 26 22
0.035264 0.142648 -0.932 35 24 22
0.040833 0.142314 -0.932 33 23 21
0.046407 0.14198 -0.932 34 24 20
0.05236 0.142757 -0.932 37 26 21
0.058133 0.142973 -0.932 36 24 21
0.063725 0.142634 -0.932 35 23 22
0.070272 0.145067 -0.932 38 33 24
0.076453 0.146386 -0.932 64 53 37
0.212518 0.007883 -0.93 103 102 88
0.21294 0.012625 -0.93 56 61 32
0.212034 0.017368 -0.93 39 23 16
0.211128 0.022115 -0.93 34 18 12
0.209337 0.026873 -0.93 34 20 15
0.166425 0.042449 -0.93 66 51 57
0.160645 0.038675 -0.93 60 53 51
0.156482 0.033316 -0.93 42 30 22
0.154078 0.027831 -0.93 41 24 20
0.152271 0.022348 -0.93 40 25 20
0.149279 0.016948 -0.93 37 23 19
0.146877 0.011523 -0.93 35 21 18
0.145021 0.006056 -0.93 34 21 17
0.142672 0.000608 -0.93 31 19 15
0.143473 -0.007399 -0.93 33 21 19
0.147961 -0.008931 -0.93 36 23 23
0.153452 -0.009326 -0.93 40 27 26
0.158747 -0.010219 -0.93 40 29 25
0.164448 -0.010118 -0.93 42 30 28
0.172014 -0.005514 -0.93 44 35 33
0.179014 -0.002358 -0.93 49 38 38
0.186247 0.001296 -0.93 53 40 37
0.095557 0.194841 -0.93 56 38 32
0.091122 0.196433 -0.93 54 38 30
0.086889 0.199363 -0.93 52 33 26
0.082504 0.201862 -0.93 53 31 26
0.077986 0.203468 -0.93 55 33 28
0.074749 0.205251 -0.93 56 44 37
0.061996 0.19964 -0.93 56 41 37
0.056484 0.194197 -0.93 54 41 35
0.05376 0.188817 -0.93 52 39 34
0.047291 0.183414 -0.93 49 39 33
0.042961 0.178061 -0.93 44 35 29
0.041306 0.172737 -0.93 39 28 24
0.03965 0.167422 -0.93 36 24 20
0.036925 0.162118 -0.93 34 23 19
0.036339 0.156818 -0.93 31 21 17
0.034215 0.149775 -0.93 28 17 16
0.040804 0.143202 -0.93 35 23 20
0.04399 0.143261 -0.93 34 23 20
0.049755 0.143481 -0.93 34 24 19
0.055339 0.143142 -0.93 35 24 20
0.060928 0.142804 -0.93 36 24 21
0.066901 0.143573 -0.93 36 25 23
0.073456 0.146004 -0.93 42 29 28
0.080028 0.148431 -0.93 52 35 38
0.212044 0.014996 -0.928 48 26 23
0.211582 0.019741 -0.928 39 21 17
0.210234 0.024493 -0.928 34 17 13
0.097744 0.193824 -0.928 55 37 29
0.093307 0.195414 -0.928 54 36 29
0.088938 0.197451 -0.928 52 33 27
0.084729 0.200836 -0.928 51 31 25
0.080279 0.20289 -0.928 53 33 26
0.067544 0.202422 -0.928 55 43 38
0.061972 0.196958 -0.928 55 40 36
0.054319 0.191494 -0.928 53 38 34
0.04892 0.186095 -0.928 50 38 34
0.046731 0.180747 -0.928 49 37 34
0.042936 0.175401 -0.928 44 31 28
0.041281 0.170082 -0.928 37 24 22
0.040696 0.164769 -0.928 35 22 20
0.03797 0.159464 -0.928 34 22 20
0.036854 0.152863 -0.928 30 19 17
0.040771 0.144134 -0.928 34 22 19
0.04715 0.144205 -0.928 33 23 19
0.052921 0.144425 -0.928 32 24 19
0.058509 0.144086 -0.928 34 24 19
0.064292 0.144299 -0.928 37 24 22
0.070653 0.146177 -0.928 40 28 25
0.076836 0.147494 -0.928 48 38 33
0.162441 0.041375 -0.928 52 40 35
0.160043 0.035894 -0.928 53 36 33
0.155278 0.030558 -0.928 44 26 23
0.152879 0.025106 -0.928 40 25 20
0.151662 0.019592 -0.928 39 24 19
0.147486 0.014272 -0.928 37 22 18
0.146268 0.008776 -0.928 35 21 18
0.143078 0.002278 -0.928 44 24 18
0.142946 -0.003335 -0.928 41 22 19
0.154452 -0.008074 -0.928 38 27 24
0.156805 -0.008031 -0.928 40 28 26
0.162305 -0.008429 -0.928 40 29 26
0.168836 -0.006335 -0.928 42 32 29
0.176454 -0.001659 -0.928 47 36 33
0.181995 -0.002046 -0.928 50 38 33
0.189448 0.002111 -0.928 56 43 39
0.210284 0.012626 -0.926 44 27 20
0.212034 0.017368 -0.926 41 25 18
0.210685 0.022117 -0.926 31 18 11
0.099995 0.193252 -0.926 55 36 28
0.095492 0.194394 -0.926 52 37 28
0.091122 0.196433 -0.926 51 35 26
0.086822 0.198916 -0.926 51 32 25
0.082504 0.201862 -0.926 51 33 25
0.074086 0.204287 -0.926 53 42 35
0.066968 0.199724 -0.926 54 39 35
0.060843 0.194259 -0.926 52 39 34
0.053225 0.188811 -0.926 51 38 34
0.048361 0.183425 -0.926 49 37 33
0.046171 0.178081 -0.926 43 34 29
0.042376 0.172742 -0.926 38 27 23
0.040721 0.167425 -0.926 35 21 18
0.039601 0.162115 -0.926 33 22 18
0.038415 0.156798 -0.926 30 20 16
0.03646 0.150893 -0.926 28 16 15
0.03358 0.146157 -0.926 32 19 19
0.038417 0.143596 -0.926 36 25 21
0.044361 0.144373 -0.926 33 23 20
0.049942 0.144036 -0.926 32 23 19
0.055339 0.143142 -0.926 32 22 18
0.060928 0.142804 -0.926 35 23 20
0.067281 0.144684 -0.926 41 26 23
0.073456 0.146004 -0.926 44 30 26
0.08022 0.148984 -0.926 52 34 35
0.16837 0.04388 -0.926 48 34 32
0.161241 0.038633 -0.926 50 37 33
0.157069 0.033256 -0.926 44 30 24
0.154078 0.027831 -0.926 41 26 21
0.152271 0.022348 -0.926 37 24 19
0.149279 0.016948 -0.926 35 21 17
0.146877 0.011523 -0.926 35 20 18
0.14566 0.006031 -0.926 34 21 18
0.141444 -0.003959 -0.926 50 31 23
0.143507 -0.006035 -0.926 37 25 20
0.148761 -0.00694 -0.926 36 24 22
0.154055 -0.007833 -0.926 39 28 26
0.159758 -0.007732 -0.926 39 29 26
0.165465 -0.007634 -0.926 38 28 25
0.172224 -0.005008 -0.926 42 31 30
0.179014 -0.002358 -0.926 47 36 34
0.186669 0.002307 -0.926 53 40 39
0.209389 0.015 -0.924 44 27 20
0.211138 0.019743 -0.924 41 22 18
0.209791 0.024496 -0.924 31 17 12
0.093242 0.194967 -0.924 51 32 27
0.088938 0.197451 -0.924 46 31 24
0.084595 0.199943 -0.924 49 31 24
0.079938 0.200656 -0.924 52 33 25
0.069754 0.202462 -0.924 53 39 35
0.061972 0.196958 -0.924 53 38 33
0.056459 0.191522 -0.924 54 39 34
0.0532 0.186139 -0.924 53 39 34
0.047801 0.180756 -0.924 48 35 32
0.045611 0.175416 -0.924 41 30 27
0.042351 0.170083 -0.924 36 23 20
0.041231 0.164769 -0.924 33 20 16
0.040646 0.159457 -0.924 30 19 16
0.03812 0.15218 -0.924 29 19 16
0.037903 0.145596 -0.924 34 23 19
0.041572 0.144541 -0.924 33 22 19
0.04715 0.144205 -0.924 32 22 18
0.052733 0.143868 -0.924 31 21 18
0.058321 0.143529 -0.924 32 22 18
0.064671 0.145409 -0.924 37 25 21
0.070843 0.146731 -0.924 43 30 25
0.077412 0.149159 -0.924 49 38 33
0.163623 0.041314 -0.924 48 36 30
0.160043 0.035894 -0.924 50 34 32
0.156461 0.030492 -0.924 45 27 26
0.154062 0.025036 -0.924 40 24 21
0.152254 0.019556 -0.924 36 22 18
0.149262 0.014159 -0.924 34 20 17
0.146861 0.008737 -0.924 33 20 18
0.144686 0.000161 -0.924 44 24 20
0.143314 -0.002953 -0.924 54 27 23
0.146813 -0.004752 -0.924 36 23 21
0.152311 -0.005147 -0.924 36 27 23
0.157612 -0.006043 -0.924 39 28 25
0.162914 -0.006937 -0.924 39 27 24
0.169045 -0.005829 -0.924 38 28 25
0.176245 -0.002165 -0.924 43 35 31
0.182206 -0.001541 -0.924 50 40 36
0.091057 0.195985 -0.922 46 30 23
0.086822 0.198916 -0.922 48 29 24
0.082504 0.201862 -0.922 51 30 24
0.075302 0.205261 -0.922 50 42 35
0.06752 0.199733 -0.922 51 37 32
0.060843 0.194259 -0.922 54 39 34
0.054295 0.188822 -0.922 55 41 37
0.049431 0.183435 -0.922 50 37 33
0.046706 0.178084 -0.922 44 33 28
0.042911 0.172744 -0.922 38 27 22
0.041256 0.167425 -0.922 33 22 17
0.041168 0.16211 -0.922 29 17 13
0.041084 0.156795 -0.922 26 16 13
0.037917 0.151322 -0.922 26 15 15
0.034312 0.148386 -0.922 28 17 18
0.039154 0.145823 -0.922 34 23 21
0.044546 0.14493 -0.922 31 21 18
0.050128 0.144593 -0.922 31 20 17
0.055527 0.143699 -0.922 31 21 17
0.061683 0.145026 -0.922 33 22 20
0.067851 0.146349 -0.922 39 25 23
0.073839 0.147114 -0.922 45 31 29
0.080797 0.150649 -0.922 50 35 34
0.16837 0.04388 -0.922 49 32 31
0.161834 0.038602 -0.922 52 37 33
0.158252 0.033191 -0.922 46 30 25
0.15467 0.027797 -0.922 40 24 20
0.152863 0.022313 -0.922 36 22 17
0.149869 0.016911 -0.922 34 20 16
0.14806 0.011447 -0.922 34 21 17
0.147375 0.005859 -0.922 33 21 17
0.145356 -0.000913 -0.922 37 24 18
0.144662 -0.003059 -0.922 39 26 20
0.14996 -0.003953 -0.922 35 23 20
0.155263 -0.004849 -0.922 39 25 24
0.160567 -0.005744 -0.922 36 25 22
0.166282 -0.005638 -0.922 37 24 22
0.17285 -0.00349 -0.922 40 27 28
0.181114 0.002698 -0.922 50 35 35
0.093307 0.195414 -0.92 47 28 25
0.088938 0.197451 -0.92 46 29 21
0.084595 0.199943 -0.92 48 29 23
0.079938 0.200656 -0.92 52 32 25
0.074725 0.202552 -0.92 51 35 35
0.067496 0.197043 -0.92 49 38 31
0.059713 0.191565 -0.92 54 40 35
0.0532 0.186139 -0.92 54 41 37
0.048871 0.180764 -0.92 50 37 35
0.046681 0.17542 -0.92 43 30 28
0.042351 0.170083 -0.92 37 25 21
0.041766 0.164769 -0.92 33 20 17
0.041181 0.159456 -0.92 28 17 14
0.039249 0.153349 -0.92 27 17 14
0.047286 0.144212 -0.92 32 20 16
0.052733 0.143868 -0.92 31 21 18
0.058509 0.144086 -0.92 32 23 19
0.06486 0.145965 -0.92 36 25 22
0.070653 0.146177 -0.92 42 31 25
0.077412 0.149159 -0.92 47 35 30
0.165989 0.041191 -0.92 46 34 29
0.161225 0.03583 -0.92 49 33 32
0.155869 0.030525 -0.92 44 26 26
0.154062 0.025036 -0.92 40 22 20
0.151662 0.019592 -0.92 35 20 17
0.150446 0.014084 -0.92 34 19 16
0.148044 0.008659 -0.92 33 21 16
0.146827 0.003166 -0.92 32 21 15
0.147977 -0.00249 -0.92 25 16 13
0.152911 -0.003654 -0.92 32 22 20
0.158015 -0.005048 -0.92 34 24 22
0.163523 -0.005446 -0.92 33 24 21
0.169252 -0.005323 -0.92 36 26 23
0.176245 -0.002165 -0.92 43 35 30
0.183049 0.00048 -0.92 53 42 39
0.095428 0.193946 -0.918 47 33 24
0.091122 0.196433 -0.918 45 28 21
0.086755 0.198469 -0.918 47 28 22
0.082301 0.200523 -0.918 50 30 25
0.074149 0.199844 -0.918 48 32 28
0.061948 0.194276 -0.918 52 37 32
0.05483 0.188829 -0.918 54 39 36
0.052641 0.183463 -0.918 53 40 37
0.048311 0.178094 -0.918 47 36 32
0.046122 0.172755 -0.918 40 28 24
0.042861 0.167427 -0.918 34 22 18
0.041741 0.162111 -0.918 29 18 14
0.041048 0.156146 -0.918 27 16 14
0.039186 0.147356 -0.918 34 21 20
0.044732 0.145487 -0.918 32 23 20
0.050315 0.14515 -0.918 32 21 18
0.055902 0.14481 -0.918 32 22 19
0.062249 0.146691 -0.918 33 23 21
0.068231 0.147459 -0.918 39 25 24
0.074794 0.149887 -0.918 43 28 27
0.080797 0.150649 -0.918 46 31 27
0.168962 0.04385 -0.918 44 27 26
0.162425 0.038571 -0.918 48 33 30
0.160027 0.033093 -0.918 43 30 25
0.155854 0.027729 -0.918 38 25 20
0.152863 0.022313 -0.918 36 21 17
0.151053 0.016837 -0.918 35 19 17
0.149837 0.011332 -0.918 35 20 17
0.14798 0.00585 -0.918 34 21 17
0.146696 -0.000323 -0.918 33 22 16
0.145456 -0.001067 -0.918 39 27 19
0.15056 -0.00246 -0.918 29 18 16
0.155865 -0.003356 -0.918 34 21 19
0.16097 -0.00475 -0.918 33 22 20
0.166491 -0.005133 -0.918 35 23 21
0.173685 -0.001467 -0.918 42 29 28
0.179855 -0.000336 -0.918 53 39 37
0.097615 0.192929 -0.916 50 31 26
0.093242 0.194967 -0.916 45 28 24
0.088938 0.197451 -0.916 46 28 21
0.084595 0.199943 -0.916 48 29 23
0.079803 0.199764 -0.916 51 32 25
0.075278 0.202562 -0.916 47 29 30
0.068049 0.197051 -0.916 45 32 26
0.060266 0.191571 -0.916 50 35 29
0.05427 0.186149 -0.916 53 38 35
0.049941 0.180772 -0.916 52 39 37
0.047217 0.175424 -0.916 48 34 32
0.044491 0.17009 -0.916 41 27 24
0.042301 0.164769 -0.916 34 21 19
0.041606 0.159413 -0.916 28 17 14
0.040397 0.150643 -0.916 32 21 17
0.042885 0.147702 -0.916 35 21 19
0.047646 0.145434 -0.916 34 21 19
0.052733 0.143868 -0.916 33 23 20
0.058509 0.144086 -0.916 34 23 20
0.065239 0.147076 -0.916 36 25 20
0.071225 0.147842 -0.916 41 30 25
0.077602 0.149713 -0.916 43 28 25
0.16658 0.041161 -0.916 42 29 23
0.161225 0.03583 -0.916 47 30 26
0.157645 0.030425 -0.916 44 27 23
0.154654 0.025002 -0.916 39 23 19
0.152845 0.01952 -0.916 36 22 18
0.150446 0.014084 -0.916 35 21 16
0.148637 0.00862 -0.916 35 21 16
0.147719 0.002121 -0.916 38 21 18
0.162176 -0.004674 -0.916 33 22 20
0.16373 -0.004942 -0.916 35 24 22
0.169876 -0.003804 -0.916 39 29 26
0.176662 -0.001154 -0.916 46 38 34
0.1841 0.003008 -0.916 60 50 48
0.191989 0.008174 -0.916 61 47 45
0.095363 0.193499 -0.914 45 30 23
0.091057 0.195985 -0.914 45 28 22
0.08669 0.198023 -0.914 47 27 21
0.082233 0.200076 -0.914 51 30 23
0.073597 0.199835 -0.914 43 27 24
0.068025 0.194361 -0.914 46 32 28
0.05697 0.188854 -0.914 47 34 30
0.053711 0.183473 -0.914 49 38 34
0.049916 0.178104 -0.914 48 37 32
0.047727 0.172762 -0.914 44 33 27
0.044467 0.167428 -0.914 36 25 21
0.042812 0.16211 -0.914 32 20 17
0.04202 0.155853 -0.914 30 17 15
0.045347 0.145999 -0.914 35 25 21
0.050315 0.14515 -0.914 34 24 21
0.055902 0.14481 -0.914 34 24 20
0.062061 0.146135 -0.914 35 24 21
0.068421 0.148014 -0.914 38 25 23
0.074985 0.150442 -0.914 42 28 25
0.080989 0.151202 -0.914 41 28 26
0.168962 0.04385 -0.914 43 25 22
0.163608 0.038508 -0.914 46 31 26
0.160618 0.03306 -0.914 43 29 23
0.157036 0.02766 -0.914 39 25 20
0.154046 0.022242 -0.914 36 22 18
0.152238 0.016763 -0.914 35 21 17
0.150988 0.011249 -0.914 35 21 16
0.149375 0.004917 -0.914 33 21 16
0.147379 0.000478 -0.914 38 26 21
0.150963 -0.001456 -0.914 28 20 17
0.156276 -0.002344 -0.914 33 20 19
0.161382 -0.003738 -0.914 36 24 23
0.167321 -0.003106 -0.914 39 27 26
0.174102 -0.000454 -0.914 45 32 31
0.181324 0.003203 -0.914 57 43 43
0.188991 0.007867 -0.914 62 51 47
0.209369 0.01975 -0.912 38 23 17
0.210675 0.02449 -0.912 36 20 15
0.209327 0.029248 -0.912 29 16 11
0.093307 0.195414 -0.912 45 27 22
0.089004 0.197899 -0.912 46 27 21
0.084595 0.199943 -0.912 49 30 23
0.079803 0.199764 -0.912 53 35 25
0.068601 0.19706 -0.912 40 28 22
0.060818 0.191578 -0.912 44 30 25
0.05534 0.18616 -0.912 45 34 28
0.053151 0.180796 -0.912 46 35 29
0.049357 0.175435 -0.912 47 35 31
0.046632 0.170094 -0.912 42 29 27
0.043907 0.164769 -0.912 35 23 20
0.042326 0.15908 -0.912 30 18 16
0.044554 0.149116 -0.912 36 23 20
0.048103 0.146499 -0.912 36 24 21
0.053108 0.144979 -0.912 34 25 21
0.05945 0.146862 -0.912 35 25 22
0.065618 0.148186 -0.912 37 26 23
0.071415 0.148397 -0.912 40 28 24
0.077986 0.150823 -0.912 41 28 25
0.16658 0.041161 -0.912 43 29 23
0.161818 0.035798 -0.912 46 30 25
0.158827 0.030358 -0.912 43 27 23
0.154654 0.025002 -0.912 40 24 20
0.152845 0.01952 -0.912 38 22 18
0.15163 0.014009 -0.912 36 21 17
0.150412 0.008503 -0.912 34 21 16
0.150245 0.002118 -0.912 32 19 16
0.16243 -0.002963 -0.912 37 26 22
0.164558 -0.002916 -0.912 39 28 24
0.170917 -0.001274 -0.912 43 32 28
0.178129 0.002387 -0.912 50 41 38
0.184522 0.004019 -0.912 59 46 43
0.095428 0.193946 -0.91 44 28 20
0.091122 0.196433 -0.91 47 28 22
0.08669 0.198023 -0.91 48 28 23
0.082233 0.200076 -0.91 53 31 25
0.074149 0.199844 -0.91 40 25 20
0.067472 0.194354 -0.91 44 29 23
0.059689 0.188885 -0.91 44 30 26
0.054781 0.183482 -0.91 44 31 28
0.052057 0.178119 -0.91 44 31 27
0.048262 0.172764 -0.91 42 32 27
0.046072 0.167431 -0.91 36 26 21
0.043882 0.162109 -0.91 32 20 17
0.042837 0.155475 -0.91 29 18 16
0.045901 0.146406 -0.91 39 27 23
0.050315 0.14515 -0.91 38 26 22
0.055902 0.14481 -0.91 36 25 21
0.062249 0.146691 -0.91 38 25 23
0.068421 0.148014 -0.91 39 26 24
0.074794 0.149887 -0.91 40 27 23
0.080989 0.151202 -0.91 40 27 24
0.168962 0.04385 -0.91 44 26 23
0.163608 0.038508 -0.91 46 30 26
0.161211 0.033028 -0.91 43 27 23
0.156445 0.027694 -0.91 41 25 20
0.154046 0.022242 -0.91 38 23 18
0.153422 0.01669 -0.91 35 21 16
0.151613 0.011217 -0.91 34 21 17
0.150988 0.005674 -0.91 33 22 18
0.153567 -0.001016 -0.91 32 21 18
0.15648 -0.001836 -0.91 34 22 19
0.161589 -0.003231 -0.91 37 24 22
0.167942 -0.001587 -0.91 41 28 27
0.174102 -0.000454 -0.91 47 34 33
0.181742 0.004216 -0.91 53 40 38
0.189202 0.008373 -0.91 53 42 37
0.209791 0.024496 -0.908 37 20 15
0.209327 0.029248 -0.908 31 18 11
0.207527 0.034017 -0.908 28 16 10
0.116051 0.191492 -0.908 26 26 12
0.111371 0.19129 -0.908 47 28 23
0.106747 0.191537 -0.908 48 30 22
0.093307 0.195414 -0.908 43 27 20
0.088938 0.197451 -0.908 46 28 21
0.08446 0.19905 -0.908 50 30 23
0.079092 0.20012 -0.908 48 30 25
0.069154 0.19707 -0.908 40 28 20
0.061371 0.191586 -0.908 45 30 24
0.056945 0.186177 -0.908 45 32 26
0.054221 0.180804 -0.908 43 29 25
0.050427 0.17544 -0.908 42 29 25
0.048237 0.170099 -0.908 40 27 23
0.045117 0.164639 -0.908 33 21 17
0.043371 0.157953 -0.908 31 20 16
0.04487 0.152139 -0.908 36 23 19
0.053603 0.145612 -0.908 36 26 22
0.05945 0.146862 -0.908 36 25 21
0.065618 0.148186 -0.908 38 26 23
0.072367 0.15117 -0.908 40 28 23
0.078178 0.151377 -0.908 40 28 25
0.167763 0.0411 -0.908 43 29 24
0.162408 0.035766 -0.908 45 29 25
0.16001 0.030291 -0.908 43 26 23
0.155245 0.024967 -0.908 41 25 21
0.153438 0.019483 -0.908 39 22 19
0.152221 0.013971 -0.908 37 21 17
0.151551 0.0084 -0.908 34 22 17
0.152642 0.001924 -0.908 32 21 18
0.162136 -0.000971 -0.908 36 23 20
0.165385 -0.00089 -0.908 38 26 23
0.171334 -0.000261 -0.908 42 30 28
0.178546 0.003399 -0.908 47 37 34
0.186417 0.008569 -0.908 52 38 37
0.095428 0.193946 -0.906 40 27 19
0.091122 0.196433 -0.906 44 26 21
0.08669 0.198023 -0.906 49 28 21
0.082233 0.200076 -0.906 53 32 24
0.074149 0.199844 -0.906 40 24 18
0.067472 0.194354 -0.906 46 31 25
0.059137 0.188878 -0.906 47 35 28
0.054246 0.183477 -0.906 44 31 27
0.053127 0.178126 -0.906 40 27 23
0.048262 0.172764 -0.906 38 25 22
0.047142 0.167433 -0.906 35 23 19
0.045979 0.162079 -0.906 32 18 16
0.046972 0.156733 -0.906 31 19 17
0.055801 0.145403 -0.906 37 25 21
0.062439 0.147247 -0.906 37 24 22
0.06861 0.148569 -0.906 38 24 23
0.075176 0.150997 -0.906 38 27 25
0.080989 0.151202 -0.906 41 27 25
0.168962 0.04385 -0.906 41 23 21
0.163016 0.038539 -0.906 44 28 25
0.160618 0.03306 -0.906 41 27 23
0.157629 0.027626 -0.906 40 25 20
0.154637 0.022206 -0.906 39 23 19
0.153981 0.016652 -0.906 37 23 19
0.152746 0.011096 -0.906 36 23 20
0.151513 0.000891 -0.906 36 24 19
0.156891 -0.000822 -0.906 34 22 21
0.162414 -0.001204 -0.906 33 23 20
0.168358 -0.000576 -0.906 36 25 23
0.174727 0.001063 -0.906 42 29 29
0.181953 0.00472 -0.906 48 35 34
0.093307 0.195414 -0.904 40 24 18
0.088938 0.197451 -0.904 43 28 20
0.08446 0.19905 -0.904 49 31 22
0.074678 0.197154 -0.904 40 27 21
0.061923 0.191593 -0.904 47 34 27
0.058015 0.186187 -0.904 47 34 30
0.054756 0.180809 -0.904 43 29 25
0.052032 0.175448 -0.904 39 25 22
0.048772 0.1701 -0.904 36 23 21
0.047118 0.164769 -0.904 34 21 18
0.046127 0.158751 -0.904 32 20 17
0.048042 0.150076 -0.904 39 25 22
0.053482 0.146092 -0.904 38 26 24
0.059639 0.147419 -0.904 37 25 21
0.065618 0.148186 -0.904 37 25 21
0.072177 0.150616 -0.904 39 26 23
0.077986 0.150823 -0.904 40 28 25
0.176664 0.046283 -0.904 34 20 14
0.168355 0.041069 -0.904 38 24 19
0.162408 0.035766 -0.904 41 25 21
0.15942 0.030325 -0.904 40 25 21
0.157612 0.024827 -0.904 40 24 20
0.154621 0.019411 -0.904 39 23 19
0.153996 0.013858 -0.904 39 23 20
0.151728 0.00577 -0.904 42 24 21
0.154538 0.000382 -0.904 37 22 20
0.159857 -0.000506 -0.904 34 21 19
0.165591 -0.000383 -0.904 33 22 20
0.171541 0.000244 -0.904 36 26 23
0.178757 0.003904 -0.904 43 32 29
0.186417 0.008569 -0.904 49 35 32
0.113803 0.192064 -0.902 47 22 23
0.10906 0.191413 -0.902 49 29 21
0.104435 0.19166 -0.902 45 29 20
0.099868 0.192355 -0.902 41 27 19
0.095557 0.194841 -0.902 39 25 17
0.091188 0.19688 -0.902 42 25 20
0.086755 0.198469 -0.902 48 27 23
0.082097 0.199182 -0.902 55 31 25
0.075254 0.199862 -0.902 40 23 19
0.067472 0.194354 -0.902 45 29 24
0.060242 0.188892 -0.902 45 33 27
0.055851 0.183492 -0.902 44 32 26
0.053127 0.178126 -0.902 39 27 23
0.049332 0.172768 -0.902 35 24 20
0.047677 0.167434 -0.902 33 22 18
0.047013 0.162054 -0.902 31 19 16
0.045805 0.149666 -0.902 41 28 26
0.05106 0.147373 -0.902 41 28 24
0.056653 0.147033 -0.902 37 27 22
0.062816 0.148358 -0.902 36 24 20
0.06899 0.149679 -0.902 36 24 20
0.075176 0.150997 -0.902 39 26 24
0.081954 0.153984 -0.902 43 29 26
0.168962 0.04385 -0.902 37 21 18
0.164199 0.038477 -0.902 39 25 20
0.161211 0.033028 -0.902 38 24 19
0.157629 0.027626 -0.902 39 24 19
0.15523 0.022171 -0.902 40 24 19
0.153982 0.016651 -0.902 39 24 19
0.153339 0.011061 -0.902 39 24 20
0.151703 0.002945 -0.902 41 27 22
0.15751 0.000702 -0.902 35 22 19
0.162826 -0.000191 -0.902 32 20 18
0.168773 0.000436 -0.902 32 22 18
0.175563 0.003087 -0.902 39 25 24
0.183633 0.008766 -0.902 47 30 29
0.097679 0.193376 -0.9 39 25 18
0.093372 0.195862 -0.9 39 26 17
0.088938 0.197451 -0.9 44 28 20
0.08446 0.19905 -0.9 51 32 24
0.079462 0.19753 -0.9 56 34 26
0.074126 0.197146 -0.9 39 25 19
0.066896 0.191658 -0.9 43 28 23
0.059112 0.1862 -0.9 44 31 25
0.054221 0.180804 -0.9 40 27 24
0.052032 0.175448 -0.9 37 23 21
0.048772 0.1701 -0.9 34 22 19
0.047653 0.164769 -0.9 33 20 19
0.045607 0.157413 -0.9 32 22 18
0.048815 0.148031 -0.9 43 30 26
0.053669 0.146648 -0.9 39 27 24
0.05945 0.146862 -0.9 36 24 21
0.065618 0.148186 -0.9 36 25 20
0.071606 0.148951 -0.9 37 27 22
0.077986 0.150823 -0.9 41 30 26
0.08576 0.15664 -0.9 43 25 26
0.175482 0.046341 -0.9 33 19 13
0.167172 0.04113 -0.9 37 22 16
0.161818 0.035798 -0.9 39 22 19
0.16001 0.030291 -0.9 38 22 18
0.157612 0.024827 -0.9 38 23 19
0.155214 0.019375 -0.9 40 24 20
0.153728 0.013774 -0.9 42 24 21
0.152698 0.006294 -0.9 44 27 23
0.154744 0.000889 -0.9 40 24 24
0.159857 -0.000506 -0.9 34 21 20
0.165799 0.000123 -0.9 31 21 18
0.171958 0.001256 -0.9 33 24 20
0.178757 0.003904 -0.9 40 31 26
0.186417 0.008569 -0.9 45 30 28
0.095492 0.194394 -0.898 41 24 18
0.091122 0.196433 -0.898 46 27 21
0.08669 0.198023 -0.898 50 30 23
0.08203 0.198735 -0.898 54 32 26
0.074702 0.199853 -0.898 41 24 17
0.067472 0.194354 -0.898 43 27 21
0.060794 0.188897 -0.898 42 26 22
0.056386 0.183496 -0.898 39 27 22
0.053662 0.178129 -0.898 34 23 18
0.050937 0.172774 -0.898 33 21 17
0.048748 0.167435 -0.898 32 20 17
0.047551 0.162072 -0.898 32 19 17
0.046229 0.150717 -0.898 43 29 27
0.051447 0.148503 -0.898 42 31 26
0.05684 0.147589 -0.898 36 28 23
0.062816 0.148358 -0.898 35 24 20
0.0688 0.149124 -0.898 35 24 20
0.075176 0.150997 -0.898 38 26 23
0.082151 0.154549 -0.898 43 29 26
0.168962 0.04385 -0.898 39 22 18
0.164791 0.038445 -0.898 39 23 19
0.161211 0.033028 -0.898 37 21 17
0.159403 0.027524 -0.898 37 22 18
0.156389 0.0221 -0.898 39 23 19
0.155167 0.016579 -0.898 40 25 21
0.154521 0.011026 -0.898 41 25 22
0.152838 0.003926 -0.898 44 28 25
0.157918 0.001714 -0.898 38 25 21
0.163239 0.000821 -0.898 30 22 18
0.169395 0.001955 -0.898 31 20 18
0.175772 0.003593 -0.898 38 25 22
0.184052 0.009777 -0.898 44 30 26
0.210234 0.024493 -0.896 34 19 14
0.209769 0.029244 -0.896 30 16 10
0.208865 0.034001 -0.896 26 13 8
0.097744 0.193824 -0.896 39 24 19
0.093372 0.195862 -0.896 41 27 18
0.088938 0.197451 -0.896 46 30 20
0.084394 0.198603 -0.896 51 33 23
0.079462 0.19753 -0.896 55 35 26
0.073021 0.19713 -0.896 39 25 18
0.062476 0.191601 -0.896 42 25 21
0.05856 0.186194 -0.896 40 25 21
0.054221 0.180804 -0.896 36 22 18
0.052032 0.175448 -0.896 33 18 16
0.048237 0.170099 -0.896 32 17 15
0.047653 0.164769 -0.896 31 17 16
0.046165 0.157986 -0.896 31 21 16
0.054232 0.147239 -0.896 40 26 23
0.059639 0.147419 -0.896 36 25 21
0.065618 0.148186 -0.896 34 23 19
0.071986 0.150061 -0.896 35 25 21
0.078178 0.151377 -0.896 40 28 24
0.085958 0.157203 -0.896 43 26 24
0.17489 0.04637 -0.896 35 22 15
0.167172 0.04113 -0.896 39 25 19
0.161818 0.035798 -0.896 40 23 20
0.16001 0.030291 -0.896 38 22 18
0.157021 0.024862 -0.896 37 22 18
0.155804 0.019339 -0.896 39 24 19
0.154438 0.013582 -0.896 45 25 22
0.155232 0.005268 -0.896 42 26 23
0.156124 0.00331 -0.896 40 24 24
0.160475 0.001013 -0.896 37 22 21
0.166005 0.00063 -0.896 32 21 18
0.172581 0.002775 -0.896 33 22 19
0.178966 0.00441 -0.896 38 30 25
0.186628 0.009075 -0.896 43 26 24
0.099868 0.192355 -0.894 39 25 17
0.095557 0.194841 -0.894 40 24 16
0.091122 0.196433 -0.894 45 25 19
0.08669 0.198023 -0.894 49 29 24
0.081962 0.198289 -0.894 52 32 25
0.068025 0.194361 -0.894 42 26 21
0.060794 0.188897 -0.894 40 25 20
0.056921 0.183502 -0.894 36 23 18
0.054197 0.178131 -0.894 32 19 15
0.052008 0.172779 -0.894 29 16 13
0.048748 0.167435 -0.894 29 16 13
0.047569 0.162048 -0.894 31 17 15
0.045921 0.151822 -0.894 41 26 25
0.051451 0.148512 -0.894 41 29 24
0.05684 0.147589 -0.894 38 28 23
0.062816 0.148358 -0.894 36 25 20
0.06861 0.148569 -0.894 35 24 19
0.075367 0.151552 -0.894 38 24 21
0.081757 0.15342 -0.894 43 27 25
0.182593 0.048819 -0.894 39 20 16
0.169553 0.043821 -0.894 43 25 21
0.165973 0.038383 -0.894 42 26 21
0.161211 0.033028 -0.894 39 24 19
0.159403 0.027524 -0.894 38 22 18
0.157005 0.022064 -0.894 39 23 19
0.155196 0.016579 -0.894 40 25 21
0.154563 0.010289 -0.894 43 28 22
0.157689 0.002514 -0.894 39 25 22
0.163439 0.001323 -0.894 32 21 19
0.169188 0.00145 -0.894 32 21 19
0.17598 0.004099 -0.894 35 22 21
0.183423 0.008261 -0.894 40 26 25
0.115932 0.190595 -0.892 23 25 10
0.111799 0.194428 -0.892 46 27 22
0.107182 0.194674 -0.892 45 26 19
0.102435 0.194023 -0.892 42 26 17
0.097872 0.194718 -0.892 41 23 17
0.093438 0.196309 -0.892 40 23 15
0.089071 0.198346 -0.892 44 28 19
0.084527 0.199497 -0.892 48 31 23
0.079142 0.199607 -0.892 47 30 24
0.074126 0.197146 -0.892 41 25 18
0.066343 0.19165 -0.892 42 25 20
0.059665 0.186205 -0.892 39 24 19
0.054756 0.180809 -0.892 35 21 17
0.052567 0.175452 -0.892 30 17 14
0.049307 0.170101 -0.892 28 16 11
0.047653 0.164769 -0.892 29 17 14
0.047 0.156136 -0.892 36 24 20
0.049328 0.150441 -0.892 42 28 26
0.054231 0.148316 -0.892 39 27 24
0.059827 0.147974 -0.892 36 25 21
0.065807 0.148742 -0.892 36 24 20
0.072367 0.15117 -0.892 37 25 21
0.078178 0.151377 -0.892 38 26 23
0.08576 0.15664 -0.892 40 25 23
0.17489 0.04637 -0.892 39 23 16
0.167172 0.04113 -0.892 44 27 21
0.162408 0.035766 -0.892 42 26 22
0.161194 0.030225 -0.892 38 24 21
0.158796 0.024758 -0.892 38 24 19
0.15686 0.01924 -0.892 39 24 19
0.154679 0.012996 -0.892 47 26 22
0.155971 0.006267 -0.892 43 26 23
0.160886 0.002027 -0.892 40 24 23
0.166418 0.001642 -0.892 34 21 19
0.172581 0.002775 -0.892 32 20 17
0.178966 0.00441 -0.892 35 24 21
0.186628 0.009075 -0.892 41 25 24
0.118002 0.188677 -0.89 28 4 14
0.113924 0.192962 -0.89 46 23 22
0.109491 0.194551 -0.89 47 28 21
0.104872 0.194796 -0.89 43 27 18
0.100249 0.195042 -0.89 40 26 16
0.095752 0.196185 -0.89 39 23 15
0.091319 0.197774 -0.89 41 23 17
0.086889 0.199363 -0.89 48 27 24
0.082233 0.200076 -0.89 52 32 26
0.077163 0.198112 -0.89 56 35 27
0.068025 0.194361 -0.89 41 25 19
0.059689 0.188885 -0.89 38 24 18
0.055851 0.183492 -0.89 34 23 18
0.053127 0.178126 -0.89 30 19 15
0.050937 0.172774 -0.89 28 16 12
0.048748 0.167435 -0.89 29 16 13
0.048163 0.162103 -0.89 32 19 17
0.046748 0.151049 -0.89 43 29 27
0.051453 0.148516 -0.89 42 30 25
0.056849 0.147603 -0.89 37 27 22
0.062626 0.147802 -0.89 35 25 20
0.0688 0.149124 -0.89 35 24 19
0.074985 0.150442 -0.89 35 25 21
0.081374 0.152312 -0.89 39 25 23
0.17668 0.049104 -0.89 39 20 17
0.168962 0.04385 -0.89 44 27 22
0.165973 0.038383 -0.89 42 27 23
0.161211 0.033028 -0.89 39 24 21
0.159403 0.027524 -0.89 38 23 20
0.157005 0.022064 -0.89 38 23 19
0.156381 0.016505 -0.89 40 24 20
0.155401 0.009024 -0.89 44 29 24
0.158132 0.002898 -0.89 40 27 23
0.163652 0.001835 -0.89 35 25 20
0.169188 0.00145 -0.89 29 20 16
0.175563 0.003087 -0.89 31 19 19
0.183213 0.007755 -0.89 39 24 23
0.209349 0.024498 -0.888 35 20 14
0.210213 0.02924 -0.888 30 16 11
0.209749 0.033992 -0.888 27 13 8
